# .PCD v0.7 - Point Cloud Data file format
VERSION 0.7
FIELDS x y z rgb
SIZE 4 4 4 4
TYPE F F F U
COUNT 1 1 1 1
WIDTH 1159
HEIGHT 1
VIEWPOINT 0 0 0 1 0 0 0
POINTS 1159
DATA ascii
-0.61374193 -1.7962394 0.83289772 9079689
-0.60512769 -1.7962399 0.83289754 9211018
-0.59651351 -1.7962404 0.83289737 9211018
-0.5861764 -1.7962412 0.83289701 9277068
-0.57928503 -1.7962414 0.83289683 9276812
-0.82412457 -1.7879037 0.832901 9276812
-0.81382638 -1.7879024 0.83290148 9211018
-0.80352765 -1.7879001 0.83290249 9145481
-0.79494542 -1.7878983 0.83290333 9211018
-0.78636318 -1.7878965 0.83290416 9211018
-0.77606457 -1.7878942 0.83290523 9013639
-0.76576596 -1.787892 0.83290607 8882310
-0.75546819 -1.7878919 0.83290631 8816517
-0.74860328 -1.7878919 0.83290625 8816517
-0.67480654 -1.7878987 0.83290315 8619138
-0.66622561 -1.7878999 0.83290267 8684931
-0.65592933 -1.7879032 0.83290118 8750724
-0.64563251 -1.7879056 0.83290005 8816517
-0.63533551 -1.7879071 0.83289933 8882310
-0.62503803 -1.787908 0.83289903 9013639
-0.61474061 -1.7879086 0.8328988 9145481
-0.60444307 -1.787909 0.83289844 9211018
-0.5941456 -1.7879096 0.8328982 9145481
-0.58384818 -1.7879101 0.83289796 9211019
-0.57526708 -1.7879113 0.83289742 9277068
0.7191934 -1.7862337 0.83740777 14474460
-0.83240366 -1.7741705 0.8329007 9211275
-0.82441407 -1.7755367 0.83290118 9145226
-0.81417447 -1.7755356 0.83290172 9013896
-0.80393511 -1.7755345 0.83290219 9013896
-0.79369575 -1.7755336 0.83290261 9079689
-0.78417504 -1.7747122 0.83290309 9013896
-0.77492648 -1.7755308 0.83290368 8816518
-0.76628655 -1.7775791 0.83290482 8750725
-0.7593435 -1.7796277 0.83290577 8816517
-0.66189253 -1.7796359 0.83290207 8487552
-0.65376812 -1.7755355 0.83290172 8487295
-0.64523619 -1.7755367 0.83290106 8619138
-0.63499761 -1.7755375 0.8329007 8750724
-0.6247589 -1.7755383 0.83290052 8816518
-0.61544383 -1.7763592 0.83290005 9013896
-0.60598475 -1.7755398 0.83289981 9079688
-0.59574628 -1.7755408 0.83289927 9013896
-0.58550793 -1.7755426 0.83289844 9013897
-0.5752697 -1.7755443 0.8328976 9145482
-0.56750304 -1.7741789 0.83289701 9211275
0.71273077 -1.7745445 0.83334768 14211288
-0.83488196 -1.763296 0.83290076 9145482
-0.82470053 -1.7632947 0.8329013 9013896
-0.81451917 -1.7632934 0.8329019 9013896
-0.8043378 -1.7632923 0.83290243 8948104
-0.79415649 -1.763291 0.83290297 8948104
-0.7839753 -1.7632899 0.83290339 8882310
-0.77549112 -1.7632897 0.83290362 8816517
-0.64483935 -1.7632922 0.83290243 8158587
-0.63465899 -1.7632931 0.83290201 8619138
-0.62447864 -1.7632942 0.83290148 8816261
-0.61429828 -1.7632955 0.832901 8947846
-0.60411811 -1.7632972 0.83290023 8948104
-0.59393805 -1.763299 0.83289933 8948104
-0.58375788 -1.7633009 0.83289844 9013896
-0.5735777 -1.7633027 0.83289766 9013896
-0.56339753 -1.7633046 0.83289677 9211275
0.70578003 -1.7640367 0.83442128 13948116
-0.84348512 -1.7552177 0.8329004 9211018
-0.83503264 -1.7552166 0.83290082 9211275
-0.8248896 -1.7552153 0.83290142 9013896
-0.81474662 -1.7552142 0.83290195 9013896
-0.80460376 -1.7552131 0.83290249 8948104
-0.79446071 -1.7552118 0.83290309 8948103
-0.78431773 -1.7552105 0.83290362 8882310
-0.77755582 -1.7552098 0.83290404 8816517
-0.72151756 -1.7507583 0.83495682 460807
-0.71605217 -1.7529391 0.83441418 460551
-0.70515209 -1.7548726 0.83464998 395014
-0.69522011 -1.7549436 0.83525354 394758
-0.68473971 -1.7531363 0.83491939 394758
-0.67791021 -1.7505047 0.83322144 394758
-0.64401567 -1.7552121 0.83290291 7500400
-0.63556403 -1.7552129 0.83290249 8421245
-0.62542218 -1.7552142 0.83290195 8750724
-0.61528039 -1.755216 0.83290124 8882310
-0.6051386 -1.7552177 0.83290035 8948103
-0.59499693 -1.7552195 0.83289957 8948104
-0.58485514 -1.7552214 0.83289868 9013896
-0.57471341 -1.7552233 0.83289784 9013896
-0.56457156 -1.7552248 0.83289701 9211275
-0.55612004 -1.7552266 0.83289629 9211018
0.69745243 -1.7534316 0.83372605 13750737
0.700589 -1.7570751 0.83204305 13948116
-0.84528702 -1.7471991 0.83290052 9276811
-0.83518219 -1.7471981 0.83290094 9211018
-0.8250773 -1.7471968 0.83290154 9013896
-0.8149724 -1.7471957 0.83290201 9013896
-0.80486751 -1.7471944 0.83290267 9013896
-0.79476261 -1.7471933 0.83290321 8948103
-0.78465778 -1.747192 0.83290368 8947846
-0.73448586 -1.7431364 0.83519316 526601
-0.72623664 -1.7483522 0.83606774 526344
-0.67464763 -1.7488416 0.83584213 395014
-0.66676629 -1.7441769 0.83503944 395014
-0.63646239 -1.7471937 0.83290309 7631987
-0.62635875 -1.7471952 0.83290225 8553345
-0.6162551 -1.7471972 0.83290148 8882309
-0.60615152 -1.7471989 0.83290058 9013639
-0.59604782 -1.7472006 0.83289975 9013896
-0.58594418 -1.7472025 0.83289891 9013896
-0.57584047 -1.7472043 0.83289796 9013896
-0.56573677 -1.7472062 0.83289719 9145481
-0.55563301 -1.7472078 0.83289641 9276811
0.687774 -1.7429456 0.83487326 13553358
0.69372654 -1.7490883 0.83757794 13816530
-0.84544963 -1.7352853 0.83290333 9342604
-0.83540195 -1.7352854 0.83290321 9211018
-0.82535434 -1.7352854 0.83290321 9013896
-0.81530643 -1.7352852 0.83290339 9013896
-0.80525851 -1.7352847 0.83290362 9079688
-0.79521054 -1.735284 0.83290386 8948103
-0.78579748 -1.7360729 0.83290434 8882053
-0.7431255 -1.7345837 0.83460772 592394
-0.73908293 -1.7386802 0.83500546 526601
-0.66046852 -1.7383093 0.83333451 394758
-0.65710104 -1.7349156 0.83675897 723979
-0.63368922 -1.736075 0.83290339 6645092
-0.62440044 -1.7352864 0.83290273 8224123
-0.6143533 -1.7352883 0.83290195 8816260
-0.60430628 -1.7352899 0.83290118 8948103
-0.5942592 -1.7352918 0.83290029 9079432
-0.58421206 -1.7352937 0.83289939 9013896
-0.57416505 -1.7352957 0.83289838 9079432
-0.56411797 -1.7352977 0.83289742 9211018
-0.55407089 -1.7352999 0.83289647 9342604
-0.54829758 -1.7322756 0.83246326 5263697
0.67744231 -1.7334938 0.83557802 13355979
0.68249011 -1.7378504 0.83354789 13421772
-0.85227174 -1.7234894 0.83290613 9013896
-0.84561062 -1.7234894 0.83290607 9145482
-0.83561897 -1.7234894 0.83290607 9079432
-0.82562739 -1.7234896 0.83290601 8816517
-0.81563574 -1.7234898 0.83290601 8684673
-0.80564409 -1.7234898 0.83290601 8618880
-0.79565245 -1.7234898 0.83290601 9013638
-0.7873261 -1.7234899 0.83290595 8816259
-0.75111455 -1.720808 0.83416605 658187
-0.74810487 -1.7267128 0.83506614 657930
-0.63245648 -1.7234936 0.83290416 5263440
-0.62579584 -1.7234949 0.83290362 7171436
-0.61580491 -1.7234968 0.83290261 8618880
-0.60581392 -1.7234988 0.83290166 9013638
-0.59582299 -1.7235008 0.8329007 8684673
-0.585832 -1.723503 0.83289975 8684673
-0.57584095 -1.723505 0.8328988 8816517
-0.5658499 -1.723507 0.83289784 9013896
-0.55585885 -1.7235092 0.83289689 9145482
-0.5485096 -1.7263892 0.83154225 7368815
0.1866557 -1.7245779 0.83973265 328705
0.65919363 -1.7202977 0.83073694 12895428
0.66480547 -1.7239158 0.83564126 13027014
0.67108697 -1.7284285 0.834261 13158600
-0.85235339 -1.7157031 0.83290797 9145482
-0.84571695 -1.7157031 0.83290797 9211018
-0.83576232 -1.7157034 0.83290792 9013896
-0.82580763 -1.7157034 0.83290792 8158587
-0.81585294 -1.7157034 0.83290792 7368556
-0.80589837 -1.7157034 0.83290792 6710883
-0.79594368 -1.7157034 0.83290786 7763314
-0.78598905 -1.7157036 0.83290768 8552831
-0.75322008 -1.7150186 0.83615953 723980
-0.63096923 -1.7129914 0.83540744 3750201
-0.62340027 -1.7157154 0.83290219 7237228
-0.61344558 -1.7157155 0.83290213 8618624
-0.60349131 -1.7157167 0.83290166 7697521
-0.59353727 -1.7157187 0.83290058 6776419
-0.58358318 -1.7157208 0.83289963 7434349
-0.5736292 -1.7157229 0.83289868 8224381
-0.56367511 -1.7157249 0.83289766 9013896
-0.55372095 -1.715727 0.83289671 9211018
-0.54708487 -1.7157283 0.83289611 9211018
0.18628381 -1.7176138 0.83567041 65792
0.49983704 -1.7115667 0.83851379 11711154
0.50170732 -1.7107357 0.83525294 11711154
0.64522558 -1.7124246 0.83497745 12566463
0.65478963 -1.7175909 0.83567911 12829635
-0.8535859 -1.7028598 0.83291107 7831424
-0.84587485 -1.7041384 0.83291072 8882568
-0.83597511 -1.7041388 0.8329106 8816517
-0.82607555 -1.7041388 0.83291054 7500657
-0.81617588 -1.7041391 0.83291036 6579298
-0.80627632 -1.7041396 0.83291024 5395024
-0.79637671 -1.7041397 0.83291012 5263439
-0.78555918 -1.7035921 0.83291 7829364
-0.75474787 -1.7058756 0.8339057 723979
-0.63080859 -1.7076583 0.83305991 3618614
-0.62479049 -1.704164 0.83289844 6447713
-0.61489064 -1.7041644 0.83289838 7960950
-0.6049909 -1.7041645 0.83289814 5592147
-0.59509116 -1.704165 0.83289796 5131852
-0.58519131 -1.7041653 0.8328979 6513505
-0.57529157 -1.7041659 0.83289772 7303278
-0.56539208 -1.704167 0.83289719 8684931
-0.55549258 -1.704168 0.83289665 9014153
-0.54649913 -1.703764 0.83272362 7436152
0.18842198 -1.7042875 0.83830625 197120
0.50671393 -1.7084717 0.83510685 11711154
0.51537311 -1.7050518 0.83429521 11711154
0.52441174 -1.7022148 0.83564156 12105912
0.53490037 -1.7041669 0.83471513 11711154
0.6163252 -1.7012882 0.83608234 11974326
0.6249041 -1.7039491 0.83429772 12237498
0.63528633 -1.7078928 0.83555508 12369084
-0.8525973 -1.6926914 0.83291107 8554374
-0.84603405 -1.6926922 0.83291078 9079689
-0.83618921 -1.6926932 0.83291036 8882310
-0.82634425 -1.6926941 0.83290988 7566450
-0.81649899 -1.6926943 0.83290976 6513505
-0.80501294 -1.6926947 0.83290958 5131852
-0.79352683 -1.6926951 0.83290935 6381663
-0.78368145 -1.6926953 0.83290935 8027000
-0.77711803 -1.6926955 0.83290923 7368814
-0.75509423 -1.6962794 0.83483154 789773
-0.63044441 -1.6945819 0.83685112 1842203
-0.62616324 -1.692716 0.83289939 5987161
-0.61631787 -1.6927161 0.83289933 8092537
-0.60647249 -1.6927165 0.83289915 6381919
-0.5949862 -1.6927167 0.83289903 5131852
-0.58349985 -1.6927171 0.83289886 6513505
-0.57365447 -1.6927176 0.83289868 7566194
-0.56380928 -1.6927185 0.8328982 8947846
-0.55396414 -1.6927196 0.83289766 9079689
-0.54583192 -1.6929297 0.83279699 7369587
0.18799178 -1.6968578 0.83455449 0
0.53963125 -1.6982238 0.83753872 11711154
0.54524606 -1.6972542 0.83403242 11711154
0.55581778 -1.6958894 0.8350141 11711154
0.56547391 -1.6952863 0.83530164 11711154
0.57529163 -1.6951847 0.83535004 11711154
0.58531648 -1.6956924 0.83510804 11711154
0.59557801 -1.6968619 0.83455014 11711154
0.60543066 -1.6986169 0.83475381 11776947
-0.85267907 -1.6851361 0.83291054 9211018
-0.84613973 -1.6851368 0.8329103 9211018
-0.83633071 -1.6851376 0.83290988 9013896
-0.82652169 -1.6851386 0.83290941 8158587
-0.8150779 -1.6851397 0.83290887 7039592
-0.80363399 -1.6851407 0.83290833 6381662
-0.79382497 -1.6851416 0.83290792 7895157
-0.7840156 -1.6851419 0.83290786 8355709
-0.77420616 -1.6851422 0.83290768 6513506
-0.75343943 -1.6858563 0.83980149 1118994
-0.63157314 -1.6849438 0.83481467 2631720
-0.62379831 -1.6851543 0.8329019 7171435
-0.61398882 -1.6851546 0.83290172 8553087
-0.60417932 -1.6851549 0.83290148 7434606
-0.59437013 -1.685156 0.832901 6381662
-0.58456093 -1.6851572 0.83290046 7105384
-0.57475168 -1.6851583 0.83289999 7895415
-0.56494254 -1.6851592 0.83289939 9013895
-0.55513328 -1.6851603 0.83289886 9211018
-0.54702818 -1.685361 0.8328023 7763573
0.18988119 -1.6816986 0.83817834 394241
0.19026098 -1.6869562 0.83927691 394241
-0.85276026 -1.6776354 0.83291012 9079689
-0.84629679 -1.6739126 0.83290964 9211018
-0.83562362 -1.673382 0.83290905 9079689
-0.82445091 -1.6744471 0.83290857 8882310
-0.81377786 -1.6739162 0.83290809 8750723
-0.80402207 -1.6739169 0.83290768 8816259
-0.7942664 -1.6739178 0.83290714 8948102
-0.78451055 -1.6739188 0.83290672 8684673
-0.7747547 -1.6739193 0.83290631 7566193
-0.76723313 -1.6726786 0.83290625 5723990
-0.63392973 -1.6739819 0.83467823 3355442
-0.62516135 -1.6739244 0.83290392 7631986
-0.61540532 -1.6739249 0.83290368 8684674
-0.60564941 -1.6739258 0.83290333 9013638
-0.59589356 -1.6739268 0.83290285 8816259
-0.58528501 -1.673396 0.83290231 8816516
-0.57475883 -1.6739292 0.83290172 8882310
-0.56500292 -1.6739302 0.83290118 9079689
-0.55524707 -1.6739312 0.8329007 9211274
-0.54808897 -1.6754214 0.83278006 7105900
0.1894446 -1.6751175 0.83593249 0
-0.8464523 -1.6627971 0.83290887 9342861
-0.83513224 -1.6627982 0.83290833 9276810
-0.82381219 -1.6627992 0.83290786 9079432
-0.81410933 -1.6628002 0.83290738 9013896
-0.80440617 -1.6628007 0.83290714 9079432
-0.79470301 -1.6628013 0.8329069 9013639
-0.78499985 -1.6628017 0.83290666 8816260
-0.77529669 -1.6628022 0.83290642 8290173
-0.76559353 -1.6628027 0.83290619 6579299
-0.75912482 -1.6628031 0.83290595 4210752
-0.64170551 -1.6612034 0.83548117 1579032
-0.63761628 -1.6653029 0.83477128 3355442
-0.62489575 -1.6628069 0.8329041 8224380
-0.61357504 -1.662807 0.8329041 8947846
-0.60387164 -1.662807 0.83290404 9013639
-0.59416825 -1.6628071 0.83290404 9079688
-0.58446497 -1.6628073 0.83290386 9013896
-0.57476187 -1.6628084 0.83290339 9079432
-0.56505883 -1.6628094 0.83290285 9211275
-0.55535579 -1.6628104 0.83290237 9474189
-0.54900879 -1.6631551 0.83273411 6053212
0.19150388 -1.6629938 0.8399905 394497
-0.84333229 -1.655458 0.83290833 9342604
-0.83366418 -1.6554586 0.83290786 9145225
-0.82399601 -1.655459 0.83290768 9013896
-0.81432772 -1.6554598 0.83290738 9013896
-0.80465937 -1.65546 0.83290714 9013896
-0.79499108 -1.6554605 0.83290696 9013639
-0.78532273 -1.6554608 0.83290678 8947846
-0.77565438 -1.6554612 0.83290654 8619138
-0.76598597 -1.6554617 0.83290642 7697780
-0.75504786 -1.6550936 0.8352356 3092270
-0.65088511 -1.6507592 0.83699799 921102
-0.64518422 -1.6555082 0.83567005 2302754
-0.63385147 -1.6554669 0.83290386 7763572
-0.62418282 -1.6554667 0.83290392 8619138
-0.61451417 -1.6554666 0.83290404 8947846
-0.60484558 -1.6554664 0.83290404 9013639
-0.59517699 -1.6554666 0.83290404 9013896
-0.58550853 -1.6554666 0.83290404 9013896
-0.57583994 -1.6554666 0.83290392 9013896
-0.56617141 -1.6554667 0.83290386 9145225
-0.55492073 -1.6555493 0.83286339 8487296
0.190824 -1.6542127 0.83888793 394497
0.229036 -1.6505314 0.83889484 7953426
-0.84284955 -1.6452744 0.83290893 9276811
-0.833884 -1.6445508 0.83290887 9211018
-0.82426745 -1.6445512 0.83290869 9013896
-0.81465101 -1.6445516 0.83290857 9013896
-0.8050344 -1.6445518 0.83290833 8948103
-0.79541785 -1.6445521 0.83290821 8948103
-0.78580135 -1.6445526 0.83290809 8947846
-0.77618456 -1.6445524 0.83290809 8816260
-0.76568073 -1.6440344 0.83290863 8552831
-0.75463122 -1.6450673 0.83290899 7237229
-0.7440756 -1.6435528 0.83467388 3618871
-0.73760349 -1.6409484 0.83468306 2302755
-0.66201001 -1.6411464 0.83565408 1579032
-0.65482622 -1.6449519 0.83514363 2895148
-0.64475757 -1.6445559 0.83290625 7434864
-0.63514233 -1.6445594 0.83290458 8487295
-0.62552667 -1.6445622 0.83290321 8750724
-0.61591035 -1.6445633 0.83290261 8882310
-0.60544795 -1.6440467 0.83290261 8948103
-0.59507674 -1.6445632 0.83290273 8948103
-0.58469743 -1.6450797 0.83290291 9013896
-0.57423753 -1.6445628 0.83290291 9013896
-0.56462067 -1.6445627 0.83290291 9211275
-0.55540925 -1.6456866 0.83234739 7829622
0.18980938 -1.6407394 0.83656776 0
0.19014439 -1.6454505 0.83781445 394497
-0.83410144 -1.6337458 0.83291012 9211275
-0.82453614 -1.6337461 0.83291 9013896
-0.81497097 -1.6337465 0.83290982 9013896
-0.8054058 -1.6337467 0.83290964 8948104
-0.79584056 -1.6337471 0.83290958 8948104
-0.78627491 -1.6337466 0.83290964 8948103
-0.77511466 -1.6337454 0.8329103 8816517
-0.76395464 -1.6337442 0.83291084 8684931
-0.75438976 -1.6337456 0.8329103 8355710
-0.74482489 -1.6337465 0.83290976 7829365
-0.734559 -1.6358726 0.83399141 4408130
-0.72589171 -1.6346555 0.83556962 1842460
-0.71494979 -1.631978 0.83556372 789773
-0.70636404 -1.6306177 0.83623838 526858
-0.69363511 -1.6306047 0.83624488 526601
-0.68540603 -1.6319096 0.8353442 855566
-0.67492986 -1.6344001 0.8361398 1579032
-0.66660827 -1.6364024 0.83464348 3355442
-0.65554911 -1.6337494 0.83290839 7763573
-0.64598441 -1.6337509 0.83290762 8290174
-0.63482618 -1.6337543 0.83290601 8684931
-0.62366807 -1.6337581 0.83290404 8816517
-0.61410397 -1.6337615 0.83290237 8948103
-0.60453922 -1.6337633 0.8329013 8948104
-0.59497374 -1.6337633 0.83290148 8948104
-0.58540821 -1.6337632 0.83290148 9013896
-0.57584268 -1.633763 0.83290154 9013896
-0.56627721 -1.6337628 0.83290166 9145482
-0.55897266 -1.6355876 0.83199477 6250591
0.18953703 -1.6366278 0.83503872 0
-0.83265638 -1.6266105 0.83291095 9211275
-0.82471365 -1.6266108 0.83291084 9145482
-0.81518239 -1.6266112 0.83291072 9013897
-0.80565101 -1.6266116 0.83291054 9013896
-0.79611927 -1.6266111 0.83291072 9013896
-0.7849986 -1.6266098 0.83291131 9013640
-0.77387881 -1.6266103 0.83291101 8816517
-0.76434803 -1.6266118 0.83291036 8750724
-0.75481719 -1.626613 0.83290976 8619138
-0.74528599 -1.6266137 0.83290935 8421503
-0.73575479 -1.6266142 0.83290911 7961208
-0.72622341 -1.6266146 0.83290893 7303278
-0.7151053 -1.6266189 0.83290678 6710885
-0.7028805 -1.6278957 0.8343994 3947837
-0.69590759 -1.6279345 0.83438033 4013629
-0.68492252 -1.6266198 0.83290631 6710885
-0.67538947 -1.6266161 0.83290815 7237229
-0.66585803 -1.6266165 0.83290797 7895158
-0.65632647 -1.6266165 0.83290797 8355710
-0.64520669 -1.6266172 0.83290762 8619138
-0.63408774 -1.6266202 0.83290625 8750724
-0.62455732 -1.6266228 0.83290488 8816518
-0.61502695 -1.6266257 0.83290339 9013640
-0.6054967 -1.6266292 0.83290172 9013896
-0.59596598 -1.6266314 0.8329007 9013896
-0.58484578 -1.6266313 0.83290064 9013897
-0.57372552 -1.6266311 0.8329007 9145482
-0.56479228 -1.6259296 0.831833 7434864
0.19144143 -1.623911 0.83956707 394497
0.22969677 -1.623524 0.83444989 3943945
0.23016936 -1.6271052 0.83266401 0
0.36024708 -1.6252875 0.83179849 1117741
-0.83122158 -1.6195258 0.83291179 9342604
-0.82497734 -1.6160086 0.83291215 9276812
-0.81549621 -1.6160084 0.83291203 9079689
-0.80601525 -1.6160091 0.83291191 9079689
-0.7949543 -1.6160096 0.83291149 9211017
-0.78389376 -1.616011 0.83291078 9079689
-0.77441329 -1.6160125 0.83291012 8947846
-0.76493281 -1.6160139 0.83290941 8816517
-0.75545216 -1.6160145 0.83290905 8816261
-0.7459712 -1.6160153 0.83290881 8684931
-0.7356233 -1.6155123 0.83290893 8619138
-0.72471529 -1.616518 0.83290845 8421759
-0.71437007 -1.616021 0.83290583 8289917
-0.70489067 -1.6160246 0.83290392 7698038
-0.6954096 -1.6160251 0.83290368 7632501
-0.68592697 -1.616022 0.83290529 8224381
-0.6755923 -1.6155149 0.83290768 8487296
-0.66465336 -1.6165192 0.83290786 8553345
-0.65432113 -1.6160177 0.83290744 8684931
-0.64484006 -1.6160179 0.83290738 8816261
-0.63535935 -1.6160191 0.83290678 8816518
-0.62504053 -1.6155195 0.83290541 8947847
-0.61482185 -1.6160246 0.83290386 9145225
-0.60459512 -1.6165301 0.83290243 9211017
-0.59427875 -1.6160307 0.83290082 9079689
-0.58479834 -1.6160327 0.83289981 9079689
-0.57456404 -1.6157233 0.83280277 8816261
-0.56834269 -1.6184864 0.83166391 7698037
0.19061509 -1.6132133 0.83784127 197120
-0.8230899 -1.6049043 0.83204508 5197646
-0.81580853 -1.6055079 0.83291215 9277068
-0.80480629 -1.6055093 0.83291131 9211018
-0.79380393 -1.6055107 0.83291054 9211274
-0.78437346 -1.6055121 0.83290982 9079689
-0.77494282 -1.6055136 0.83290929 9013896
-0.76551205 -1.6055145 0.83290863 8948103
-0.75608104 -1.605515 0.83290845 8947847
-0.74507749 -1.6055143 0.83290875 8882310
-0.73407388 -1.6055135 0.83290929 8816517
-0.72464401 -1.6055161 0.83290786 8750981
-0.71521497 -1.6055211 0.83290535 6646635
-0.70578462 -1.6055231 0.83290434 4541260
-0.6947816 -1.6055237 0.83290404 4541260
-0.68377751 -1.6055216 0.83290511 6975343
-0.67434424 -1.6055173 0.83290726 8750981
-0.66491216 -1.6055155 0.83290815 8816517
-0.65548146 -1.6055169 0.83290744 8882310
-0.64605075 -1.6055182 0.83290678 8947847
-0.63504767 -1.6055185 0.83290666 8948103
-0.62404531 -1.6055206 0.83290559 9013896
-0.61461508 -1.6055231 0.83290434 9079689
-0.60518479 -1.6055256 0.83290309 9211274
-0.59575444 -1.6055284 0.83290166 9211018
-0.58475244 -1.6055313 0.83290017 9276812
-0.57586992 -1.6055504 0.83148301 6710885
0.18994662 -1.6032525 0.83405328 0
0.19017664 -1.6068869 0.8357355 0
0.36113048 -1.6044698 0.83519858 1512496
-0.81495601 -1.5980448 0.83200949 7237486
-0.80517358 -1.5951324 0.83291042 9342860
-0.79422873 -1.5951339 0.83290958 9277067
-0.7848475 -1.5951352 0.83290893 9211018
-0.77546602 -1.5951363 0.83290845 9211274
-0.76521927 -1.5946447 0.83290827 9145225
-0.75443941 -1.5956278 0.83290863 9013640
-0.74419212 -1.5951349 0.83290917 9144968
-0.73480994 -1.5951346 0.83290929 9079689
-0.72542983 -1.5951385 0.83290726 8290688
-0.71519709 -1.59465 0.83290559 5067604
-0.70439351 -1.5956358 0.83290446 4606538
-0.69415909 -1.5951439 0.8329044 4672330
-0.68477654 -1.5951428 0.83290505 4936274
-0.67539334 -1.5951405 0.83290631 7961980
-0.66516984 -1.5946448 0.83290809 9145225
-0.65506721 -1.5951376 0.83290768 9079432
-0.64495713 -1.595631 0.83290684 9013639
-0.63473803 -1.5951405 0.83290625 9145225
-0.62535638 -1.5951411 0.83290583 9211274
-0.61514765 -1.5946513 0.83290482 9211018
-0.6050334 -1.5951461 0.83290339 9342603
-0.5949111 -1.5956409 0.83290195 9408396
-0.58533233 -1.5967497 0.83208495 6908521
0.19198811 -1.5932868 0.83909595 394497
0.22941689 -1.5902976 0.83362073 0
0.36468941 -1.5934818 0.83549833 1512752
0.46398026 -1.59326 0.83385921 2828376
-0.80251408 -1.5850143 0.8328259 6119005
-0.79577971 -1.5836873 0.83263457 7763573
-0.78531712 -1.5848541 0.83290815 9408140
-0.77598411 -1.5848545 0.83290792 9408139
-0.76509494 -1.5848534 0.83290839 9211018
-0.7542057 -1.5848526 0.83290893 9079689
-0.74487215 -1.5848517 0.83290935 9342346
-0.73553938 -1.5848522 0.83290911 9276810
-0.72620821 -1.5848562 0.83290702 8553602
-0.71532059 -1.5848585 0.83290589 6251106
-0.70443279 -1.5848604 0.83290488 6710884
-0.69509977 -1.5848607 0.83290476 6645092
-0.68576604 -1.5848595 0.83290535 6119263
-0.67487663 -1.5848581 0.83290613 8159102
-0.66398627 -1.5848542 0.83290797 9276810
-0.65465319 -1.5848545 0.83290792 9276810
-0.64532065 -1.5848559 0.8329072 9079689
-0.63598806 -1.5848573 0.83290648 9211018
-0.62510002 -1.5848589 0.83290571 9342603
-0.61421186 -1.58486 0.83290505 9408140
-0.60379863 -1.5837439 0.8326053 8290173
-0.59548587 -1.5859733 0.83163559 6119005
0.19127499 -1.5830913 0.83556044 65792
0.22879523 -1.5834454 0.83188546 0
0.36795202 -1.5874538 0.83437097 1249325
0.37148201 -1.5826126 0.83405572 1907764
0.45875147 -1.5843668 0.83490288 3157590
-0.79365367 -1.5771174 0.83223367 7237486
-0.78584343 -1.5740732 0.83248079 7631987
-0.77494788 -1.5746894 0.83290827 9342604
-0.76411515 -1.5746884 0.83290887 9145225
-0.75482982 -1.5746875 0.83290929 9145225
-0.74554449 -1.5746866 0.83290964 9342603
-0.73541206 -1.5742069 0.83290857 9276810
-0.72473085 -1.5751734 0.83290708 9145481
-0.71459824 -1.5746933 0.83290625 8027001
-0.70531416 -1.574695 0.83290529 7500400
-0.69519085 -1.5742137 0.83290511 7500401
-0.68448776 -1.575176 0.83290577 8092794
-0.67436355 -1.5746928 0.83290642 9145481
-0.66507792 -1.5746912 0.83290726 9276810
-0.65579224 -1.5746893 0.83290821 9342603
-0.6456815 -1.574209 0.8329075 9211017
-0.63495535 -1.5751741 0.83290672 9145225
-0.62484455 -1.5746938 0.83290595 9408396
-0.61477989 -1.5743059 0.83285731 8619139
-0.60609114 -1.576648 0.83224404 6711142
0.19321905 -1.5720167 0.83949131 394241
0.2280976 -1.5760429 0.83046305 460033
0.37662104 -1.5770061 0.83461243 1183789
0.38333347 -1.5714207 0.83459097 1381423
0.44585085 -1.5717125 0.83530873 1052217
0.45250821 -1.5772661 0.83505756 1579076
-0.78181088 -1.5678838 0.83121109 3487286
-0.77314943 -1.564239 0.8322385 6250848
-0.76468563 -1.5646166 0.83290905 9342605
-0.75544816 -1.5646156 0.83290952 9342604
-0.74467152 -1.5646154 0.83290958 9211275
-0.7338962 -1.5646178 0.83290833 9145481
-0.72465998 -1.5646194 0.83290744 9211017
-0.71542382 -1.5646211 0.83290654 9276554
-0.7046482 -1.5646231 0.83290565 9145224
-0.69387168 -1.5646232 0.83290553 9145225
-0.68463403 -1.564622 0.83290607 9276554
-0.67539662 -1.564621 0.83290672 9211017
-0.66461939 -1.5646197 0.83290738 9145482
-0.65384203 -1.5646178 0.83290833 9276811
-0.64460552 -1.5646189 0.83290774 9342604
-0.63437939 -1.5637429 0.83249688 8092794
-0.62566584 -1.5646799 0.83218259 6382178
-0.61697328 -1.5684664 0.8309083 4737353
0.19266663 -1.5648955 0.83796299 394241
0.38813913 -1.5685692 0.83519471 723497
0.39450812 -1.5655967 0.83517283 526376
0.40484038 -1.5626599 0.83392364 3420736
0.4144327 -1.5618521 0.83468962 6183768
0.42489243 -1.5628977 0.83380049 2631226
0.43570951 -1.5661551 0.83601022 723248
0.44156298 -1.5690578 0.83407521 920373
-0.76402116 -1.5589077 0.83241618 6185055
-0.75521678 -1.5559846 0.83221436 6250848
-0.74459326 -1.5545136 0.83255404 8487553
-0.73461771 -1.5546602 0.83290869 9211275
-0.72542882 -1.5546618 0.83290792 9145738
-0.71540493 -1.5541917 0.8329069 9211274
-0.7048229 -1.5551378 0.83290595 9276811
-0.69479829 -1.5546659 0.83290577 9277067
-0.68560809 -1.5546647 0.83290642 9211274
-0.67559236 -1.5541916 0.83290702 9145482
-0.66498941 -1.5551344 0.83290762 9211275
-0.65504968 -1.5540286 0.83249909 8356224
-0.64558744 -1.5555923 0.83217275 6250591
-0.63654202 -1.5587801 0.83248276 5855834
0.19293392 -1.5555429 0.83647341 131328
-0.74086082 -1.5496693 0.83034146 3487286
-0.73421526 -1.5486168 0.83089572 3487286
-0.72426337 -1.5470406 0.83172566 3421750
-0.71433228 -1.5454675 0.83255392 3356214
-0.70411658 -1.5444729 0.83221656 7304308
-0.69648314 -1.5444434 0.83223224 7304308
-0.6853807 -1.545501 0.83253628 3487800
-0.67544317 -1.5470757 0.83170718 3619129
-0.66548371 -1.548654 0.83087611 3750458
-0.65835828 -1.5497829 0.83028167 3816508
0.19396447 -1.5450217 0.83794951 394241
-0.067258418 -1.5325958 0.83590931 84059
0.09914615 -1.5324148 0.83600563 618636
0.19423729 -1.5359694 0.83641273 131328
0.095668755 -1.5204906 0.83550948 618122
0.19516325 -1.5242096 0.83694482 197120
0.22546749 -1.5241327 0.83356905 0
-0.061632685 -1.5138843 0.83428323 84059
0.092361964 -1.5128142 0.83621162 617608
0.19654667 -1.5175344 0.8370865 1971972
0.2246369 -1.5159571 0.83282942 0
-0.055799119 -1.5031254 0.8339653 84059
0.087568514 -1.5039185 0.83590859 616836
0.19756159 -1.5051142 0.83763617 1314563
0.22347766 -1.5047088 0.83209383 0
-0.051464666 -1.4966123 0.83647639 84059
-0.047616392 -1.4916328 0.83411789 84059
0.079792358 -1.4929819 0.83507156 616321
0.082898043 -1.4970655 0.83453971 616321
0.19832173 -1.4942479 0.8377589 328705
0.22259407 -1.496191 0.83163536 525825
-0.042976245 -1.4865581 0.83520335 84059
-0.03838715 -1.482101 0.83595914 84059
0.067650288 -1.4818411 0.83610147 680313
0.073708005 -1.4868875 0.83446288 615034
0.1977102 -1.4864068 0.83528823 197120
0.20036355 -1.4854107 0.83919299 3023623
-0.033890959 -1.4786782 0.83447939 84059
-0.024926217 -1.4733132 0.83491999 84059
0.049815863 -1.470674 0.83553886 6517624
0.055736702 -1.4738172 0.834921 2581878
0.063180774 -1.4785992 0.8345229 679541
0.19947094 -1.4754145 0.8379519 1709060
0.21947436 -1.4708941 0.83876151 8939284
0.22026984 -1.478026 0.83819216 8873748
-0.014561711 -1.4682344 0.83465892 84059
-0.0057433504 -1.4655221 0.83504796 84059
0.0045000128 -1.463716 0.83604938 84059
0.014711003 -1.4633001 0.83628011 1264989
0.02491837 -1.4641424 0.83581305 5070435
0.035144269 -1.4657705 0.83491015 5399915
0.043936141 -1.4681697 0.83469462 6385781
0.19861512 -1.4657416 0.83659935 460033
0.2014232 -1.4662638 0.83964515 4075273
0.21862996 -1.4634218 0.83954567 8939284
0.19783936 -1.4567363 0.83493882 0
0.20037681 -1.4552231 0.83910543 3154951
0.22059146 -1.4539019 0.83817881 8939284
0.27314618 -1.4343996 0.83589476 2567218
0.2667349 -1.4258494 0.83417356 2501424
0.25563678 -1.4140656 0.83501881 1975079
0.26247898 -1.419934 0.83755124 1316633
0.14180839 -1.4015869 0.83504701 0
0.16833885 -1.4006267 0.83885789 2633268
0.17586112 -1.4006286 0.83600944 987411
0.1829924 -1.4006861 0.83665425 987411
0.23483616 -1.4015763 0.83505082 329479
0.24441531 -1.4060609 0.83506095 1053204
0.25027287 -1.4095776 0.83040613 855825
0.14650758 -1.3960629 0.83467853 395015
0.15549594 -1.3961171 0.83497292 592395
0.16463305 -1.3988125 0.83547348 987411
0.17278491 -1.3999425 0.83274382 0
0.18764591 -1.399464 0.83519286 0
0.19505452 -1.399128 0.83647281 0
0.20490313 -1.399128 0.83647281 0
0.21475175 -1.399128 0.83647287 0
0.22461659 -1.3992337 0.83641142 257
0.62356341 -2.01017 0.84784204 16777215
0.58683759 -2.0070653 0.84906507 16777215
0.59447008 -2.0074117 0.84892857 16777215
0.60405022 -2.0079641 0.84871095 16777215
0.61565262 -2.0089552 0.84832054 16777215
0.60818946 -1.9948938 0.8498652 16777215
0.61590999 -1.9956435 0.84956837 16777215
0.62557685 -1.9966091 0.84918594 16777215
0.63535279 -1.9978894 0.84867907 16777215
0.64322442 -1.9990488 0.84821987 16777215
0.65572494 -1.995296 0.84570324 14211288
0.66338205 -1.9900981 0.84777218 5654312
0.63753819 -1.9852712 0.84969348 16777215
0.64539349 -1.9864962 0.84920591 16711422
0.65520209 -1.9837589 0.84730828 15395562
0.65479523 -1.9723779 0.84821844 16645629
0.66530836 -1.9772689 0.84890568 16777215
0.67333651 -1.9790189 0.84820551 16777215
0.57506692 -1.9629418 0.84474665 11711154
0.58169824 -1.9603162 0.84581077 11711154
0.65655577 -1.9659019 0.84949684 11711154
0.66748047 -1.9653813 0.84970617 16777215
0.67546493 -1.9670986 0.84901565 16777215
0.68348676 -1.9688919 0.84829438 16777215
0.58689189 -1.9582567 0.84466529 11711154
0.59478533 -1.9551259 0.84544373 11711154
0.60359663 -1.9516315 0.84538478 11711154
0.65269613 -1.9580474 0.84870774 16711422
0.6776371 -1.955498 0.84973824 16777215
0.68567485 -1.9574265 0.84895873 16777215
0.69172132 -1.9588982 0.84836382 16777215
0.60875946 -1.9495853 0.84424353 11711154
0.61324489 -1.9478073 0.84575844 11711154
0.65322006 -1.9467703 0.84933448 16777215
0.68597788 -1.9459958 0.84964913 16777215
0.69399583 -1.9479195 0.84886748 16777215
0.7042588 -1.9449782 0.84809941 16777215
0.65567249 -1.9359274 0.84982336 11711154
0.68841124 -1.9355541 0.84997571 16777215
0.69436222 -1.9368823 0.84943336 16777215
0.70231658 -1.9386758 0.84870094 16777215
0.71275109 -1.9304793 0.84813571 16777215
0.41979885 -1.9206721 0.84435511 13487565
0.42392242 -1.9247023 0.84659904 15461355
0.69675249 -1.9265354 0.84975445 16777215
0.70471972 -1.9284366 0.84897417 16777215
0.7171647 -1.9209895 0.84813082 16777215
0.70514458 -1.9178967 0.84940672 16777215
0.71537185 -1.9153173 0.84852791 16777215
0.72172248 -1.9120575 0.84792697 16777215
0.41556025 -1.9066396 0.84434205 13487565
0.70762682 -1.9081556 0.84954482 16777215
0.71585846 -1.905201 0.8488338 16777215
0.72208655 -1.9017222 0.84833807 16777215
0.41331407 -1.8943144 0.84562349 14013909
0.70622867 -1.8977787 0.84998137 16777215
0.71443218 -1.8948691 0.84926486 16777215
0.72467279 -1.8926185 0.84826934 16777215
0.40984219 -1.8838049 0.84425122 12237498
0.41349262 -1.8858744 0.84723842 15527149
0.71519685 -1.8838125 0.84939378 16777215
0.72525716 -1.8830788 0.8484152 16777215
0.40854353 -1.8759565 0.84372228 12237498
0.41201621 -1.8772432 0.847027 14869219
0.71326399 -1.8738559 0.84974319 16777215
0.72395593 -1.8733491 0.8486743 16777215
0.40799618 -1.8655325 0.84303951 12500670
0.41065282 -1.8691539 0.84661424 15000804
0.71488124 -1.861858 0.84971595 16777215
0.72468567 -1.8643521 0.8486557 16777215
0.40812197 -1.8530824 0.84391546 12434877
0.71575391 -1.8532431 0.84957027 16777215
0.72546214 -1.8555619 0.84857959 16777215
0.40738279 -1.8470986 0.84076679 11711154
0.71474606 -1.8443815 0.84955972 16777215
0.72436714 -1.8465631 0.84862304 16777215
0.73116815 -1.8451653 0.84732372 16777215
0.71565491 -1.8360087 0.84936863 16777215
0.72624969 -1.835745 0.8482216 16777215
0.70898789 -1.826134 0.84985727 16777215
0.71470284 -1.8274091 0.84930432 16777215
0.72282302 -1.8251097 0.84841716 16777215
0.730869 -1.8269997 0.8457008 16777215
0.70626998 -1.8174461 0.84986359 16777215
0.71433395 -1.8150984 0.84900928 16777215
0.72485685 -1.8146037 0.84734035 16777215
0.70506305 -1.8045719 0.84948856 16777215
0.71594018 -1.8035374 0.84844065 16777215
0.72446877 -1.8076457 0.84663302 16777215
0.69662452 -1.7920287 0.84977692 16777215
0.70586604 -1.7937618 0.84901047 16777215
0.7167812 -1.7948033 0.84730452 16777215
0.72196728 -1.7997377 0.84636837 16777215
0.68871343 -1.7831756 0.84997553 16777215
0.69600725 -1.784391 0.84943539 16777215
0.70518434 -1.7860324 0.84870625 16777215
0.71481782 -1.7857497 0.84585035 16514043
0.68636328 -1.775435 0.84970838 16777215
0.69644028 -1.7746019 0.84884644 16777215
0.70441979 -1.775762 0.84808046 16777215
0.71049052 -1.7730284 0.84336156 15856113
-0.73308122 -1.7605052 0.84530973 2763305
-0.72632384 -1.7605042 0.84531021 3092013
-0.71618801 -1.7605028 0.84531075 3289392
-0.70575666 -1.7646042 0.84530967 3158062
-0.695602 -1.7646046 0.84530944 3158062
-0.68578243 -1.7605036 0.84531039 3355185
-0.67564774 -1.7605052 0.84530973 3157806
-0.66889149 -1.7605067 0.84530902 2894891
0.67681235 -1.7665871 0.84996438 16777215
0.68467611 -1.7642393 0.84917331 16777215
0.69369304 -1.7656822 0.84852445 16777215
0.70313776 -1.7639961 0.84465563 15987699
-0.74198151 -1.7523694 0.84531009 2960427
-0.73356771 -1.7523695 0.84530997 3355185
-0.72269326 -1.7521122 0.84450495 3420719
-0.714176 -1.753419 0.84298581 986894
-0.7047174 -1.7549418 0.84229112 855308
-0.6945591 -1.7548394 0.84233767 789516
-0.6844418 -1.7530495 0.84278536 855565
-0.6763528 -1.7523688 0.84531039 4276027
-0.66625738 -1.7523718 0.84530908 3355184
-0.65784359 -1.752372 0.8453089 2960683
0.65838134 -1.7502644 0.84994775 16777215
0.66538572 -1.7510242 0.84960359 16777215
0.67527515 -1.7557282 0.84931922 16777215
0.68486273 -1.7535915 0.84844089 16777215
0.69548631 -1.7552713 0.84522051 16185078
-0.75081235 -1.7442914 0.8453123 3026220
-0.74410772 -1.7442936 0.84531134 3420977
-0.73429513 -1.7440444 0.84358591 2039581
-0.72669196 -1.7481196 0.8426404 986894
-0.6732561 -1.7481323 0.84232664 723723
-0.66444647 -1.7439797 0.84398353 1973789
-0.65358382 -1.7442957 0.84531039 3289392
-0.64687765 -1.744294 0.84531111 2763304
0.56760299 -1.7431132 0.84952235 16777215
0.57262528 -1.7431175 0.84952039 16777215
0.64934385 -1.7423928 0.84985012 16777215
0.65630883 -1.7431211 0.84951872 16777215
0.66504091 -1.7440805 0.84908211 16777215
0.67519885 -1.7439713 0.84821534 16777215
0.6855908 -1.745597 0.8459425 16382457
0.69270366 -1.7489194 0.84319627 15921906
-0.75456685 -1.7362761 0.84531379 3092012
-0.74428111 -1.7348961 0.84411573 2039838
-0.73924077 -1.7385235 0.84244406 1052944
-0.65534866 -1.736245 0.8444106 2894891
-0.64434582 -1.7362795 0.84531218 2960427
0.50703919 -1.7346079 0.84973997 16777215
0.51192391 -1.7342106 0.84992158 16777215
0.55707568 -1.7347101 0.84969318 13750737
0.56424308 -1.7362642 0.84898263 16777215
0.63525343 -1.7342519 0.84990275 16777215
0.64387345 -1.735031 0.84954649 16777215
0.65425199 -1.7360314 0.84908915 16777215
0.66464454 -1.7346512 0.84825957 16777215
0.6745469 -1.734745 0.84510291 15856113
0.68302602 -1.7389543 0.84224582 14737632
-0.76297563 -1.7230641 0.84531349 2960427
-0.75447762 -1.7240874 0.84466547 3026477
-0.74823439 -1.726966 0.84319884 1645082
-0.65179706 -1.7274818 0.84387463 2500133
-0.64482313 -1.725173 0.84531146 3421234
-0.63669759 -1.7225399 0.84525156 2894634
0.18977806 -1.7241368 0.84359592 2957831
0.19770667 -1.7221496 0.84816408 5652748
0.21903938 -1.7203068 0.8490147 8742164
0.22606574 -1.7227949 0.84604162 8873492
0.50651461 -1.7246381 0.84884149 16777215
0.51462132 -1.7239939 0.84913808 16777215
0.52386749 -1.7240074 0.84949589 16777215
0.53328764 -1.7261674 0.84995782 16777215
0.54792327 -1.7236062 0.84749174 16777215
0.55475205 -1.7272539 0.84800178 16119285
0.56262797 -1.7296466 0.84835947 16777215
0.61468858 -1.7263355 0.84988064 16777215
0.62562448 -1.7236468 0.84929782 16777215
0.6350081 -1.7249739 0.8490513 16777215
0.64441079 -1.7251064 0.84862596 16777215
0.65517044 -1.7256317 0.84760284 16645629
0.66479409 -1.725618 0.84395492 15527148
-0.76401758 -1.712605 0.8453114 3026220
-0.75476885 -1.7144172 0.84373873 2039839
-0.64182425 -1.7126117 0.8453083 3289649
-0.63374829 -1.7147797 0.84338653 2828841
0.18921402 -1.7161283 0.84184885 1643268
0.19492669 -1.7155107 0.84614307 4864010
0.20464186 -1.7149187 0.84932691 7033103
0.21453314 -1.7147543 0.84940261 8347666
0.22535744 -1.7154157 0.84582269 8939284
0.49950173 -1.7127771 0.84341204 12434877
0.50535256 -1.7130404 0.84614837 15000804
0.51570791 -1.714088 0.84825629 16777215
0.52580631 -1.7151161 0.84868979 16777215
0.53558999 -1.7162471 0.84862179 16382457
0.54482597 -1.7154077 0.84704131 16777215
0.55606526 -1.7149305 0.84932119 16777215
0.56543952 -1.71548 0.84943008 16777215
0.57531595 -1.7153765 0.84947801 16777215
0.58523583 -1.7154051 0.84946489 16777215
0.59523827 -1.7156725 0.84934109 16777215
0.60528618 -1.7160608 0.84916145 16777215
0.61535305 -1.7164893 0.84896326 16777215
0.62457603 -1.7137803 0.84839898 16777215
0.6351667 -1.7132156 0.84720916 16645629
0.64527237 -1.7145582 0.84440213 15395562
0.65431738 -1.7185988 0.84373432 15198183
-0.76602441 -1.7048327 0.84531027 2960427
-0.75593084 -1.7044787 0.84305882 1842461
-0.64264035 -1.7048373 0.84530818 3224113
-0.63441443 -1.704837 0.8453083 2960684
0.1948107 -1.705526 0.84498674 4206601
0.20359054 -1.7042096 0.84832019 6967311
0.21435398 -1.7052988 0.84871578 8413458
0.22435644 -1.7048473 0.84530497 8807956
0.50749421 -1.7086582 0.84230775 12105912
0.51460654 -1.7072191 0.8441937 13619151
0.52380866 -1.7049662 0.84524912 14408667
0.53348571 -1.7054684 0.84455961 14079702
0.54563403 -1.7034076 0.84718591 16448250
0.55590576 -1.7032499 0.84786373 16514043
0.56567943 -1.7029972 0.84798193 16777215
0.57552004 -1.7029533 0.84800243 16777215
0.58543473 -1.7031283 0.84792072 16711422
0.59543139 -1.7035335 0.84773111 16711422
0.60591877 -1.7036484 0.84690171 16185078
0.61531037 -1.703797 0.84507227 15329769
0.62532884 -1.7062056 0.84466845 15329769
0.6329993 -1.7080657 0.84307015 14277081
-0.76637584 -1.6971154 0.84531069 2960683
-0.75684929 -1.6949325 0.84513575 2631976
-0.64181191 -1.6971223 0.84530741 3289649
-0.63349712 -1.6950543 0.84411412 2499876
-0.62974393 -1.6989788 0.84262311 1842203
0.19340067 -1.6954578 0.84319943 3286535
0.20515634 -1.6939265 0.84801549 6967311
0.21509337 -1.6952438 0.84799838 8544787
0.22513321 -1.6954675 0.84427941 8939284
0.5391202 -1.6989576 0.84263313 12698049
0.54539329 -1.6980352 0.84306806 12895428
0.55491155 -1.6970267 0.84354353 13355979
0.56456453 -1.6964631 0.84380931 13750737
0.57435817 -1.6963392 0.84386772 13882323
0.58431786 -1.6967059 0.84369475 14079702
0.59446794 -1.6976081 0.84326935 13816530
0.60417014 -1.6989126 0.84229171 13290186
-0.7636382 -1.685654 0.84531075 3026219
-0.75552404 -1.6853375 0.84455848 2829355
-0.6437602 -1.6849072 0.84530437 3355442
-0.6346851 -1.6860102 0.84436882 2500133
0.19635622 -1.6846796 0.84457117 4601098
0.2059446 -1.6843027 0.8477456 7098896
0.21578886 -1.6849302 0.84744906 8610835
0.22361235 -1.6857166 0.84467936 9004820
-0.76358604 -1.6748047 0.84387469 2565669
-0.75444835 -1.6743064 0.84531015 3421234
-0.65070939 -1.6743152 0.84530592 3618613
-0.64422512 -1.6743141 0.84530634 3420978
-0.63511771 -1.6750761 0.84314823 1644824
0.19547969 -1.6738706 0.84372503 4075017
0.20441027 -1.6759156 0.84723485 7033103
0.21577065 -1.676013 0.84718877 8545043
0.22319168 -1.6758289 0.84458399 9004820
-0.75483608 -1.6668118 0.84531134 3223599
-0.74676228 -1.6668146 0.84530997 3684405
-0.65309072 -1.6668173 0.84530866 3684405
-0.64340937 -1.6651243 0.8439762 2368547
-0.63832134 -1.6678535 0.84242326 1250067
0.19554253 -1.6649903 0.84350318 3352327
0.2049619 -1.6658061 0.84722501 7098896
0.21329542 -1.6653351 0.84745055 8413459
0.22389731 -1.666158 0.84383696 9070612
-0.75387079 -1.6582834 0.84464866 2434083
-0.7463249 -1.6550609 0.84484845 2960427
-0.73705769 -1.6538379 0.84531069 3618356
-0.72995406 -1.6519939 0.84530985 4012856
-0.67223573 -1.651996 0.84530878 4210234
-0.66483968 -1.6538408 0.84530938 3684405
-0.65502423 -1.6550776 0.84484035 3092013
-0.64635074 -1.6566499 0.84395158 1907996
0.19612102 -1.6531235 0.84387392 4403978
0.20501594 -1.655645 0.8471064 7033104
0.21631505 -1.6561109 0.84688216 8676371
0.22452259 -1.6559768 0.84338391 9005076
-0.742778 -1.6454763 0.84372997 1447446
-0.73533708 -1.6433208 0.843835 2171168
-0.72403878 -1.6446667 0.84530848 3749941
-0.7144528 -1.6446649 0.84530932 4736063
-0.70646381 -1.6446617 0.84531087 5853771
-0.69368386 -1.644662 0.84531069 5854027
-0.68569803 -1.6446657 0.84530896 4736063
-0.6761139 -1.6446681 0.84530777 3815477
-0.66419411 -1.6434265 0.84413832 2302754
-0.65608686 -1.6456531 0.843054 987151
0.19611818 -1.6438131 0.84395003 4535306
0.20502415 -1.6451416 0.84720868 7098896
0.21593428 -1.6455545 0.84700888 8610579
0.2239397 -1.6451054 0.84391451 9004820
-0.73283333 -1.6387177 0.84347892 789516
-0.72429991 -1.6358782 0.84368849 1710618
-0.71508038 -1.6337981 0.84352905 1447446
-0.70566851 -1.6331131 0.8443079 1907997
-0.69502604 -1.6325766 0.84412849 1842203
-0.68539971 -1.6337826 0.8435365 1513239
-0.67544693 -1.6357597 0.84374648 1644824
-0.66664088 -1.6389439 0.84277725 921102
0.19533475 -1.6343651 0.8432501 3286535
0.20555662 -1.6352556 0.84723508 7033104
0.21347395 -1.6350288 0.84734571 8478995
0.22481084 -1.6347849 0.84304523 9005076
-0.70009243 -1.6296232 0.84204245 460552
0.19551831 -1.6243621 0.84346008 3746568
0.20311585 -1.6255653 0.84668505 6770191
0.21490487 -1.6249712 0.84697628 8610579
0.22299135 -1.6252581 0.84419507 8939284
0.19677033 -1.6149172 0.84402525 4929546
0.20613523 -1.6157299 0.84713501 7164688
0.21492469 -1.6153762 0.84695864 8610579
0.22359835 -1.6153922 0.84378994 9005076
0.35986522 -1.6118851 0.84552777 1578546
0.36001986 -1.6103389 0.84103423 1710131
0.19601846 -1.6059395 0.8432315 4272137
0.20433119 -1.604404 0.8466208 7033103
0.21462691 -1.6057619 0.84681755 8479251
0.22205614 -1.6057113 0.84451324 9005076
0.36146021 -1.6025448 0.84492397 1644081
0.19575605 -1.5956333 0.84280205 3286535
0.20487776 -1.5950996 0.84655666 6901519
0.21451321 -1.595311 0.84655064 8545043
0.22419673 -1.5951079 0.842834 9005076
0.36467242 -1.5936323 0.84415579 1446959
0.46258944 -1.5906438 0.8404333 2960216
0.19526227 -1.5849589 0.8421523 3746312
0.20380324 -1.5843214 0.84594846 6573070
0.21651846 -1.5849272 0.84593183 8676371
0.22415698 -1.584426 0.84242296 8939284
0.36806574 -1.5871943 0.84565383 1841972
0.37189785 -1.5821069 0.84475118 1184046
0.45713106 -1.5823852 0.84460872 2434383
0.46120775 -1.5880437 0.84696257 2697043
0.19700392 -1.5748336 0.84290266 4206601
0.20612738 -1.5751619 0.84619647 7296016
0.21416044 -1.5752763 0.84613866 8479251
0.22264099 -1.5751095 0.84310794 8939284
0.37710714 -1.5763925 0.84418362 1644850
0.38242984 -1.5720472 0.84466553 1381423
0.44757921 -1.5730165 0.84520864 2499912
0.45281726 -1.5773299 0.84543931 2829134
0.19653638 -1.5646211 0.84213495 3680776
0.20393369 -1.5645117 0.84541023 6638606
0.21559811 -1.5645643 0.84538269 8610835
0.2218972 -1.567983 0.84328842 8939284
0.38795426 -1.5686674 0.84466171 986668
0.39495915 -1.5653986 0.8451823 723241
0.40481594 -1.5627049 0.84457755 3420736
0.415207 -1.5618644 0.84435081 6183769
0.42525566 -1.5629125 0.8441577 2368055
0.43532994 -1.5659995 0.84559321 1381173
0.44193545 -1.5692587 0.84435922 2499652
0.19680263 -1.5561339 0.84191185 4338185
0.20464809 -1.554561 0.84501576 6441742
0.2141896 -1.5565704 0.84535468 8545043
0.22311246 -1.5542216 0.841757 9004820
0.19783163 -1.5451037 0.84190845 3680776
0.2057512 -1.544796 0.84492254 6967311
0.21490403 -1.5450937 0.84476846 8610579
0.22267786 -1.5449849 0.84139812 8939284
-0.066936053 -1.5308554 0.84535682 84059
0.098920316 -1.5316916 0.8449198 618636
0.19811665 -1.5370117 0.8415696 4338185
0.20415989 -1.5340059 0.84405309 6310158
0.21566539 -1.5342081 0.84394664 8610579
0.22223568 -1.5357682 0.84108549 8939028
0.095505796 -1.5201157 0.84251267 618122
0.19816849 -1.5263219 0.84093571 3023623
0.20489441 -1.5246201 0.84353322 6441486
0.21500708 -1.5255746 0.84359831 8610579
0.22205432 -1.5240842 0.84041393 8873492
-0.062069945 -1.5150799 0.84314841 84059
-0.059944227 -1.5100969 0.84781128 84059
0.093438759 -1.5154527 0.84700978 617864
0.19970037 -1.510551 0.84081477 3023623
0.20516072 -1.5153347 0.84310901 6638606
0.21434352 -1.5148973 0.84324443 8610579
0.2210438 -1.5144868 0.84041393 8807956
-0.056826681 -1.5046965 0.84393555 84059
0.087364174 -1.5036607 0.846174 616836
0.20498385 -1.5043679 0.84242946 6309902
0.2138586 -1.5039555 0.84265035 8676115
0.22005966 -1.505103 0.84034562 8807956
-0.052036881 -1.4975423 0.84607601 84059
-0.047403004 -1.4914618 0.84430212 84059
0.079647236 -1.4929012 0.8435275 616064
0.082709581 -1.4968463 0.84476727 616321
0.20456368 -1.4945003 0.84154987 6441486
0.2165406 -1.4946569 0.84124202 8742163
-0.042781163 -1.4864804 0.84531188 84059
-0.038207415 -1.4820627 0.84602493 84059
0.067515396 -1.4818335 0.84614873 680314
0.073554724 -1.4868671 0.8445459 680570
0.20677097 -1.4860736 0.84185159 6573070
0.21491137 -1.4846907 0.84126174 8676371
-0.033725567 -1.4786692 0.8445251 84059
-0.024785096 -1.4732385 0.84497857 84059
0.049733046 -1.4706434 0.84556001 2187377
0.055638209 -1.4738669 0.84491384 6453117
0.063059911 -1.4786252 0.84454918 1860471
0.20518439 -1.4756432 0.84117013 6375694
0.21324229 -1.474377 0.84152776 8676371
-0.014454014 -1.468254 0.84464848 84059
-0.005662967 -1.4656067 0.84498936 84059
0.0045517329 -1.4637251 0.84601933 1724253
0.014732427 -1.4633287 0.84623647 5988964
0.024909819 -1.4641737 0.84577394 1592925
0.03510581 -1.465817 0.84487408 675940
0.043872125 -1.468226 0.84466362 874347
0.2062503 -1.4644725 0.84146261 6638863
0.21473213 -1.4642563 0.84130543 8742163
0.20667848 -1.4558721 0.84172964 6638607
0.21404001 -1.455429 0.84147722 8676371
0.20526807 -1.4476055 0.84168524 6375694
0.21389063 -1.4473156 0.84184676 8807699
0.19700718 -1.4332137 0.84424406 3159870
0.2051762 -1.4339193 0.84439576 4081488
0.21519358 -1.433919 0.84439594 4081488
0.22176307 -1.4329439 0.84439564 4081488
0.26917315 -1.430992 0.84439594 4081488
0.2723757 -1.4328978 0.84332561 1711393
0.19574472 -1.4251711 0.84439862 4081488
0.20429003 -1.4251746 0.84439665 4081488
0.21568331 -1.4251758 0.844396 4081488
0.22280408 -1.4251763 0.8443957 4081488
0.25983256 -1.4251808 0.84439313 4081488
0.26489395 -1.4242511 0.8436116 3028026
0.14199485 -1.4104583 0.84621423 1185048
0.15904425 -1.4115407 0.84559858 4608090
0.1622581 -1.4153197 0.84344923 4476247
0.17465863 -1.41083 0.84275109 4213074
0.18314475 -1.4108841 0.84272003 3949645
0.19491032 -1.4165294 0.84439403 4081488
0.20483084 -1.4165252 0.84439653 4081488
0.21475172 -1.4165242 0.84439707 4081488
0.22404012 -1.4159511 0.84439641 4081488
0.23425351 -1.4136572 0.84439486 4081488
0.2452729 -1.4161166 0.84439558 4081488
0.25493062 -1.4162748 0.84363401 3028284
0.26218751 -1.4196364 0.840994 1316633
0.14504822 -1.4049026 0.84484136 2567218
0.15468848 -1.4048226 0.84559667 3883851
0.16529642 -1.4046668 0.84273511 4739161
0.17560931 -1.4047232 0.84137207 3883850
0.18563388 -1.4052801 0.84231687 3094077
0.195216 -1.405115 0.84439635 4081488
0.20507382 -1.4051149 0.84439635 4081488
0.21493149 -1.4051138 0.84439689 4081488
0.22478925 -1.4051135 0.84439713 4081488
0.23457201 -1.4039565 0.84343815 2764854
0.24437134 -1.40692 0.84281987 2106409
0.1469529 -1.3982888 0.84183162 2238252
0.15482959 -1.3982974 0.84150237 2369838
0.18909244 -1.399128 0.84296781 0
0.194709 -1.399128 0.84296781 0
0.20453796 -1.399128 0.84296781 0
0.21577105 -1.3991278 0.84296787 0
0.2256148 -1.3992246 0.8429122 65793
0.58527869 -1.9933853 0.85046244 16777215
0.59472591 -1.9936924 0.85034096 16777215
0.60239524 -1.9943042 0.85009867 16777215
0.57825071 -1.9801915 0.85171533 16777215
0.58570606 -1.9802389 0.85169649 16777215
0.59508622 -1.9805019 0.85159189 16777215
0.60463047 -1.981299 0.85127455 16777215
0.6161406 -1.98241 0.85083228 16777215
0.62575972 -1.9833925 0.85044134 16777215
0.63162601 -1.9842685 0.85009259 16777215
0.62603378 -1.9706266 0.85156333 16777215
0.63579768 -1.9721893 0.85093814 16777215
0.64364141 -1.9735106 0.85040939 16777215
0.57648635 -1.9649991 0.85183996 14211288
0.58327752 -1.9653381 0.85236388 15066597
0.59375995 -1.9680265 0.85260361 16777215
0.60402304 -1.9652756 0.85370415 16448250
0.61279839 -1.963766 0.85430825 15987699
0.62022817 -1.9698348 0.85188013 16777215
0.6361782 -1.9600632 0.85184497 16777215
